28069.4882310,-10578.7134214,9.86029052476,0,0,58
28058.2982335,-10578.7134214,10.0971498829,0,0,58
28047.1082361,-10578.7134214,10.3749184714,0,0,58
28035.9182386,-10578.7134214,10.6560222886,0,0,58
28024.7282411,-10578.7134214,10.9587069964,0,0,58
28013.5382437,-10578.7134214,11.2753357208,0,0,58
28002.3482462,-10578.7134214,11.5676441620,0,0,58
27991.1582488,-10578.7134214,11.7343837911,0,0,58
27979.9682513,-10578.7134214,11.7619957051,0,0,58
27968.7782538,-10578.7134214,11.6421599983,0,0,58
27957.5882564,-10578.7134214,11.2401595956,0,0,58
27946.3982589,-10578.7134214,10.3633142013,0,0,58
27935.2082614,-10578.7134214,9.46724219522,0,0,58
27924.0182640,-10578.7134214,8.59679113887,0,0,58
27912.8282665,-10578.7134214,7.57068155047,0,0,58
27901.6382691,-10578.7134214,6.53402857069,0,0,58
27890.4482716,-10578.7134214,5.44723816813,0,0,58
27879.2582741,-10578.7134214,4.36044776556,0,0,58
27868.0682767,-10578.7134214,3.42212226481,0,0,58
27856.8782792,-10578.7134214,2.45189047080,0,0,58
27845.6882817,-10578.7134214,2.11913057560,0,0,58
27834.4982843,-10578.7134214,1.66752318949,0,0,58
27823.3082868,-10578.7134214,1.04273823854,0,0,58
27812.1182894,-10578.7134214,0.645192073536,0,0,58
27800.9282919,-10578.7134214,0.563976714902,0,0,58
27789.7382944,-10578.7134214,0.405571524043,0,0,58
27778.5482970,-10578.7134214,0.155741832662,0,0,58
29568.9478910,-10567.5234240,-0.00198032663955,0,0,58
29557.7578935,-10567.5234240,0.00477005970484,0,0,58
29546.5678961,-10567.5234240,0.0115204460492,0,0,58
29535.3778986,-10567.5234240,0.0182708323936,0,0,58
29524.1879012,-10567.5234240,0.0208576327581,0,0,58
29512.9979037,-10567.5234240,0.0242364590769,0,0,58
29501.8079062,-10567.5234240,0.0276080191025,0,0,58
29490.6179088,-10567.5234240,0.0309868454213,0,0,58
29479.4279113,-10567.5234240,0.0343584054469,0,0,58
29468.2379138,-10567.5234240,0.0377372317657,0,0,58
29457.0479164,-10567.5234240,0.0411087917913,0,0,58
29445.8579189,-10567.5234240,0.0444876181101,0,0,58
29434.6679215,-10567.5234240,0.0478591781357,0,0,58
29423.4779240,-10567.5234240,0.0914932685534,0,0,58
29412.2879265,-10567.5234240,0.198816418507,0,0,58
29401.0979291,-10567.5234240,0.30613956846,0,0,58
29389.9079316,-10567.5234240,0.428271423871,0,0,58
29378.7179341,-10567.5234240,0.589248882508,0,0,58
29367.5279367,-10567.5234240,0.750233607438,0,0,58
29356.3379392,-10567.5234240,0.911211066075,0,0,58
29345.1479418,-10567.5234240,1.07219579101,0,0,58
29333.9579443,-10567.5234240,1.27532501626,0,0,58
29322.7679468,-10567.5234240,1.94207281020,0,0,58
29311.5779494,-10567.5234240,2.60882060415,0,0,58
29300.3879519,-10567.5234240,3.27556839809,0,0,58
29289.1979544,-10567.5234240,3.94231619204,0,0,58
29278.0079570,-10567.5234240,4.60906398598,0,0,58
29266.8179595,-10567.5234240,5.27581177993,0,0,58
29255.6279621,-10567.5234240,5.94255957387,0,0,58
29244.4379646,-10567.5234240,6.60930736782,0,0,58
29233.2479671,-10567.5234240,7.27605516176,0,0,58
29222.0579697,-10567.5234240,7.94281022200,0,0,58
29210.8679722,-10567.5234240,8.60955801595,0,0,58
29199.6779747,-10567.5234240,9.27630580989,0,0,58
29188.4879773,-10567.5234240,9.94305360384,0,0,58
29177.2979798,-10567.5234240,10.6140885107,0,0,58
29166.1079824,-10567.5234240,11.3098724122,55,55,55
29154.9179849,-10567.5234240,12.1583792632,55,55,55
29143.7279874,-10567.5234240,13.0068861142,55,55,55
29132.5379900,-10567.5234240,13.8554656281,55,55,55
29121.3479925,-10567.5234240,14.7040378758,55,55,55
29110.1579950,-10567.5234240,15.5525883246,55,55,55
29098.9679976,-10567.5234240,16.4010079801,55,55,55
29087.7780001,-10567.5234240,17.2485484141,55,55,55
29076.5880026,-10567.5234240,18.0889533482,55,55,55
29065.3980052,-10567.5234240,18.9190982764,55,55,55
29054.2080077,-10567.5234240,19.7456609221,55,55,55
29043.0180103,-10567.5234240,20.5260535411,55,55,55
29031.8280128,-10567.5234240,21.6206988065,55,55,55
29020.6380153,-10567.5234240,22.7153368057,55,55,55
29009.4480179,-10567.5234240,23.8099748049,55,55,55
28998.2580204,-10567.5234240,24.9046200704,55,55,55
28987.0680229,-10567.5234240,25.9992580695,55,55,55
28975.8780255,-10567.5234240,27.0939033350,55,55,55
28964.6880280,-10567.5234240,28.2091921394,55,55,55
28953.4980306,-10567.5234240,28.8631803225,55,55,55
28942.3080331,-10567.5234240,29.7619408570,55,55,55
28931.1180356,-10567.5234240,30.8281240522,55,55,55
28919.9280382,-10567.5234240,31.8943072474,55,55,55
28908.7380407,-10567.5234240,32.9604904425,55,55,55
28897.5480432,-10567.5234240,34.0266736377,55,55,55
28886.3580458,-10567.5234240,35.0928568329,55,55,55
28875.1680483,-10567.5234240,36.1811150267,55,55,55
28863.9780509,-10567.5234240,36.5338717606,55,55,55
28852.7880534,-10567.5234240,37.0943863486,55,55,55
28841.5980559,-10567.5234240,37.7662714118,55,55,55
28830.4080585,-10567.5234240,38.4381492087,55,55,55
28819.2180610,-10567.5234240,39.1100342719,55,55,55
28808.0280635,-10567.5234240,39.7819120688,55,55,55
28796.8380661,-10567.5234240,39.8625461240,55,55,55
28785.6480686,-10567.5234240,39.8951427151,55,55,55
28774.4580712,-10567.5234240,40.0653193009,55,55,55
28763.2680737,-10567.5234240,40.2354958867,55,55,55
28752.0780762,-10567.5234240,40.4056724725,55,55,55
28740.8880788,-10567.5234240,40.5758490582,55,55,55
28729.6980813,-10567.5234240,40.4214766601,55,55,55
28718.5080838,-10567.5234240,40.2846232947,55,55,55
28707.3180864,-10567.5234240,40.2681288093,55,55,55
28696.1280889,-10567.5234240,40.2516343238,55,55,55
28684.9380915,-10567.5234240,40.0010271390,55,55,55
28673.7480940,-10567.5234240,39.4510050784,55,55,55
28662.5580965,-10567.5234240,38.9009902840,55,55,55
28651.3680991,-10567.5234240,38.3509682234,55,55,55
28640.1781016,-10567.5234240,37.8009534290,55,55,55
28628.9881041,-10567.5234240,37.2373288676,55,55,55
28617.7981067,-10567.5234240,36.6529372403,55,55,55
28606.6081092,-10567.5234240,36.0685456130,55,55,55
28595.4181117,-10567.5234240,35.4925465543,55,55,55
28584.2281143,-10567.5234240,34.9618964313,55,55,55
28573.0381168,-10567.5234240,34.4312463082,55,55,55
28561.8481194,-10567.5234240,33.6866401830,55,55,55
28550.6581219,-10567.5234240,32.8228595838,55,55,55
28539.4681244,-10567.5234240,32.2468096611,55,55,55
28528.2781270,-10567.5234240,31.6707597383,55,55,55
28517.0881295,-10567.5234240,31.0947098156,55,55,55
28505.8981320,-10567.5234240,30.7058904687,55,55,55
28494.7081346,-10567.5234240,30.6138192681,55,55,55
28483.5181371,-10567.5234240,30.5448258145,55,55,55
28472.3281397,-10567.5234240,30.3166133453,55,55,55
28461.1381422,-10567.5234240,30.0884008760,55,55,55
28449.9481447,-10567.5234240,29.8601884068,55,55,55
28438.7581473,-10567.5234240,29.6319759376,55,55,55
28427.5681498,-10567.5234240,29.4037562021,55,55,55
28416.3781523,-10567.5234240,29.1755437328,55,55,55
28405.1881549,-10567.5234240,28.8086467924,55,55,55
28393.9981574,-10567.5234240,28.3543436115,55,55,55
28382.8081600,-10567.5234240,27.8514361957,55,55,55
28371.6181625,-10567.5234240,27.3485287799,55,55,55
28360.4281650,-10567.5234240,26.8456213641,55,55,55
28349.2381676,-10567.5234240,26.3427139483,55,55,55
28338.0481701,-10567.5234240,25.8398065325,55,55,55
28326.8581726,-10567.5234240,25.3368991167,55,55,55
28315.6681752,-10567.5234240,24.7560970382,55,55,55
28304.4781777,-10567.5234240,24.0391173597,55,55,55
28293.2881803,-10567.5234240,23.3781099373,55,55,55
28282.0981828,-10567.5234240,22.7171025150,55,55,55
28270.9081853,-10567.5234240,22.0361418516,55,55,55
28259.7181879,-10567.5234240,21.2554295157,55,55,55
28248.5281904,-10567.5234240,20.4747171799,55,55,55
28237.3381929,-10567.5234240,19.1911991563,55,55,55
28226.1481955,-10567.5234240,17.9084731588,55,55,55
28214.9581980,-10567.5234240,16.9110508957,55,55,55
28203.7682006,-10567.5234240,15.9136286327,55,55,55
28159.0082107,-10567.5234240,12.2346535425,0,0,58
28147.8182132,-10567.5234240,11.7889100549,0,0,58
28136.6282158,-10567.5234240,11.3387704600,0,0,58
28125.4382183,-10567.5234240,10.8783563266,0,0,58
28114.2482209,-10567.5234240,10.4559303739,0,0,58
28103.0582234,-10567.5234240,10.1753787950,0,0,58
28091.8682259,-10567.5234240,10.1620451471,0,0,58
28080.6782285,-10567.5234240,10.2408044986,0,0,58
28069.4882310,-10567.5234240,10.3963031722,0,0,58
28058.2982335,-10567.5234240,10.6333369213,0,0,58
28047.1082361,-10567.5234240,10.9053651383,0,0,58
28035.9182386,-10567.5234240,11.1841655405,0,0,58
28024.7282411,-10567.5234240,11.4639032945,0,0,58
28013.5382437,-10567.5234240,11.7436410486,0,0,58
27968.7782538,-10567.5234240,11.9598205363,0,0,58
27957.5882564,-10567.5234240,11.4898003634,0,0,58
27946.3982589,-10567.5234240,10.5265006130,0,0,58
27935.2082614,-10567.5234240,9.63042134069,0,0,58
27924.0182640,-10567.5234240,8.79683945582,0,0,58
27912.8282665,-10567.5234240,7.77652110307,0,0,58
27901.6382691,-10567.5234240,6.73986812329,0,0,58
27890.4482716,-10567.5234240,5.65307772073,0,0,58
27879.2582741,-10567.5234240,4.56628005186,0,0,58
27868.0682767,-10567.5234240,3.56968614627,0,0,58
27856.8782792,-10567.5234240,2.59945435226,0,0,58
27845.6882817,-10567.5234240,2.26669445706,0,0,58
27834.4982843,-10567.5234240,1.71176764854,0,0,58
27823.3082868,-10567.5234240,1.12943238222,0,0,58
27812.1182894,-10567.5234240,0.731886217212,0,0,58
27800.9282919,-10567.5234240,0.650670858578,0,0,58
27789.7382944,-10567.5234240,0.413775169019,0,0,58
27778.5482970,-10567.5234240,0.19010413301,0,0,58
29568.9478910,-10556.3334265,-0.00198032663955,0,0,58
29557.7578935,-10556.3334265,0.00477005970484,0,0,58
29546.5678961,-10556.3334265,0.0115204460492,0,0,58
29535.3778986,-10556.3334265,0.0182708323936,0,0,58
29524.1879012,-10556.3334265,0.025021218738,0,0,58
29512.9979037,-10556.3334265,0.0317716050824,0,0,58
29501.8079062,-10556.3334265,0.0385219914268,0,0,58
29490.6179088,-10556.3334265,0.0410433951529,0,0,58
29479.4279113,-10556.3334265,0.0444222214716,0,0,58
29468.2379138,-10556.3334265,0.0477937814973,0,0,58
29457.0479164,-10556.3334265,0.051172607816,0,0,58
29445.8579189,-10556.3334265,0.0545441678417,0,0,58
29434.6679215,-10556.3334265,0.0579229941604,0,0,58
29423.4779240,-10556.3334265,0.101557084578,0,0,58
29412.2879265,-10556.3334265,0.208880234532,0,0,58
29401.0979291,-10556.3334265,0.331012089942,0,0,58
29389.9079316,-10556.3334265,0.491989548579,0,0,58
29378.7179341,-10556.3334265,0.652974273509,0,0,58
29367.5279367,-10556.3334265,0.813951732146,0,0,58
29356.3379392,-10556.3334265,0.974936457076,0,0,58
29345.1479418,-10556.3334265,1.13591391571,0,0,58
29333.9579443,-10556.3334265,1.33904314096,0,0,58
29322.7679468,-10556.3334265,2.00579093491,0,0,58
29311.5779494,-10556.3334265,2.67253872885,0,0,58
29300.3879519,-10556.3334265,3.33929378909,0,0,58
29289.1979544,-10556.3334265,4.00604158304,0,0,58
29278.0079570,-10556.3334265,4.67278937698,0,0,58
29266.8179595,-10556.3334265,5.33953717093,0,0,58
29255.6279621,-10556.3334265,6.00628496487,0,0,58
29244.4379646,-10556.3334265,6.67303275882,0,0,58
29233.2479671,-10556.3334265,7.33978055277,0,0,58
29222.0579697,-10556.3334265,8.00652834671,0,0,58
29210.8679722,-10556.3334265,8.67327614066,0,0,58
29199.6779747,-10556.3334265,9.33075941082,0,0,58
29188.4879773,-10556.3334265,9.97990824274,0,0,58
29177.2979798,-10556.3334265,10.6293767916,0,0,58
29166.1079824,-10556.3334265,11.3409576143,55,55,55
29154.9179849,-10556.3334265,12.1891883462,55,55,55
29143.7279874,-10556.3334265,13.0374263443,55,55,55
29132.5379900,-10556.3334265,13.8856570762,55,55,55
29121.3479925,-10556.3334265,14.7338950744,55,55,55
29110.1579950,-10556.3334265,15.5821330725,55,55,55
29098.9679976,-10556.3334265,16.4303638044,55,55,55
29087.7780001,-10556.3334265,17.2786018026,55,55,55
29076.5880026,-10556.3334265,18.1268325345,55,55,55
29065.3980052,-10556.3334265,18.9750850652,55,55,55
29054.2080077,-10556.3334265,19.8734604862,55,55,55
29043.0180103,-10556.3334265,20.9681057517,55,55,55
29031.8280128,-10556.3334265,22.0627437508,55,55,55
29020.6380153,-10556.3334265,23.1573817500,55,55,55
29009.4480179,-10556.3334265,24.2520197492,55,55,55
28998.2580204,-10556.3334265,25.3466650147,55,55,55
28987.0680229,-10556.3334265,26.4413030139,55,55,55
28975.8780255,-10556.3334265,27.5359482793,55,55,55
28964.6880280,-10556.3334265,28.6211836952,55,55,55
28953.4980306,-10556.3334265,29.6873668903,55,55,55
28942.3080331,-10556.3334265,30.7535573518,55,55,55
28931.1180356,-10556.3334265,31.8197405470,55,55,55
28919.9280382,-10556.3334265,32.8859237421,55,55,55
28908.7380407,-10556.3334265,33.9521069373,55,55,55
28897.5480432,-10556.3334265,35.0182901325,55,55,55
28886.3580458,-10556.3334265,36.0844733276,55,55,55
28875.1680483,-10556.3334265,37.1727315214,55,55,55
28863.9780509,-10556.3334265,37.7332461094,55,55,55
28852.7880534,-10556.3334265,38.4051311726,55,55,55
28841.5980559,-10556.3334265,39.0770089695,55,55,55
28830.4080585,-10556.3334265,39.7488940327,55,55,55
28819.2180610,-10556.3334265,40.4207718296,55,55,55
28808.0280635,-10556.3334265,41.0926568928,55,55,55
28796.8380661,-10556.3334265,41.2808538857,55,55,55
28785.6480686,-10556.3334265,41.4510304714,55,55,55
28774.4580712,-10556.3334265,41.6212070572,55,55,55
28763.2680737,-10556.3334265,41.7913763767,55,55,55
28752.0780762,-10556.3334265,41.9615529625,55,55,55
28740.8880788,-10556.3334265,42.1317295482,55,55,55
28729.6980813,-10556.3334265,42.1059124087,55,55,55
28718.5080838,-10556.3334265,42.0894179232,55,55,55
28707.3180864,-10556.3334265,42.0729234377,55,55,55
28696.1280889,-10556.3334265,42.0564216859,55,55,55
28684.9380915,-10556.3334265,41.8058217675,55,55,55
28673.7480940,-10556.3334265,41.2557997068,55,55,55
28662.5580965,-10556.3334265,40.7057776462,55,55,55
28651.3680991,-10556.3334265,40.1557628519,55,55,55
28640.1781016,-10556.3334265,39.6036045010,55,55,55
28628.9881041,-10556.3334265,39.0192056074,55,55,55
28617.7981067,-10556.3334265,38.4348139802,55,55,55
28606.6081092,-10556.3334265,37.8504223529,55,55,55
28595.4181117,-10556.3334265,37.2744232942,55,55,55
28584.2281143,-10556.3334265,36.7437731711,55,55,55
28573.0381168,-10556.3334265,36.2240297540,55,55,55
28561.8481194,-10556.3334265,35.3560637700,55,55,55
28550.6581219,-10556.3334265,34.4922831707,55,55,55
28539.4681244,-10556.3334265,33.9162332480,55,55,55
28528.2781270,-10556.3334265,33.3401833252,55,55,55
28517.0881295,-10556.3334265,32.7641406688,55,55,55
28505.8981320,-10556.3334265,32.1880907461,55,55,55
28494.7081346,-10556.3334265,32.0532792091,55,55,55
28483.5181371,-10556.3334265,31.8250594736,55,55,55
28472.3281397,-10556.3334265,31.5968470043,55,55,55
28461.1381422,-10556.3334265,31.3686345351,55,55,55
28449.9481447,-10556.3334265,31.1404220658,55,55,55
28438.7581473,-10556.3334265,30.9122095966,55,55,55
28427.5681498,-10556.3334265,30.6839898611,55,55,55
28416.3781523,-10556.3334265,30.4557773919,55,55,55
28405.1881549,-10556.3334265,30.0840411002,55,55,55
28393.9981574,-10556.3334265,29.5811336843,55,55,55
28382.8081600,-10556.3334265,29.0782262685,55,55,55
28371.6181625,-10556.3334265,28.5753188527,55,55,55
28360.4281650,-10556.3334265,28.0724114369,55,55,55
28349.2381676,-10556.3334265,27.5694967548,55,55,55
28338.0481701,-10556.3334265,27.0665893390,55,55,55
28326.8581726,-10556.3334265,26.5636819232,55,55,55
28315.6681752,-10556.3334265,25.9897973559,55,55,55
28304.4781777,-10556.3334265,25.3287899335,55,55,55
28293.2881803,-10556.3334265,24.6677825112,55,55,55
28282.0981828,-10556.3334265,24.0067678225,55,55,55
28270.9081853,-10556.3334265,23.3258071591,55,55,55
28259.7181879,-10556.3334265,22.5450948233,55,55,55
28248.5281904,-10556.3334265,21.6729361881,55,55,55
28237.3381929,-10556.3334265,20.2752429001,55,55,55
28226.1481955,-10556.3334265,18.9925241688,55,55,55
28214.9581980,-10556.3334265,17.9951019058,55,55,55
28203.7682006,-10556.3334265,16.9976796428,55,55,55
28147.8182132,-10556.3334265,12.0949445239,0,0,58
28136.6282158,-10556.3334265,11.6304757989,0,0,58
28125.4382183,-10556.3334265,11.1769791766,0,0,58
28114.2482209,-10556.3334265,10.8385879042,0,0,58
28103.0582234,-10556.3334265,10.6906025777,0,0,58
28091.8682259,-10556.3334265,10.6619879152,0,0,58
28080.6782285,-10556.3334265,10.7663827491,0,0,58
28069.4882310,-10556.3334265,10.9323230859,0,0,58
28058.2982335,-10556.3334265,11.1695530250,0,0,58
28047.1082361,-10556.3334265,11.4362841142,0,0,58
28035.9182386,-10556.3334265,11.7123087925,0,0,58
28024.7282411,-10556.3334265,11.9920465465,0,0,58
28013.5382437,-10556.3334265,12.2732593580,0,0,58
27968.7782538,-10556.3334265,12.2235797117,0,0,58
27957.5882564,-10556.3334265,11.5857590308,0,0,58
27946.3982589,-10556.3334265,10.6896797585,0,0,58
27935.2082614,-10556.3334265,9.79360775244,0,0,58
27924.0182640,-10556.3334265,8.89752848012,0,0,58
27912.8282665,-10556.3334265,7.98235338937,0,0,58
27901.6382691,-10556.3334265,6.94570767589,0,0,58
27890.4482716,-10556.3334265,5.85891000703,0,0,58
27879.2582741,-10556.3334265,4.77211960446,0,0,58
27868.0682767,-10556.3334265,3.68532920189,0,0,58
27856.8782792,-10556.3334265,2.74702550002,0,0,58
27845.6882817,-10556.3334265,2.41426560482,0,0,58
27834.4982843,-10556.3334265,1.79846179221,0,0,58
27823.3082868,-10556.3334265,1.21612652589,0,0,58
27812.1182894,-10556.3334265,0.818580360888,0,0,58
27800.9282919,-10556.3334265,0.67181577167,0,0,58
27789.7382944,-10556.3334265,0.444497056494,0,0,58
27778.5482970,-10556.3334265,0.247384321979,0,0,58
29568.9478910,-10545.1434290,-0.00198032663955,0,0,58
29557.7578935,-10545.1434290,0.00477005970484,0,0,58
29546.5678961,-10545.1434290,0.0115204460492,0,0,58
29535.3778986,-10545.1434290,0.0182708323936,0,0,58
29524.1879012,-10545.1434290,0.025021218738,0,0,58
29512.9979037,-10545.1434290,0.0317716050824,0,0,58
29501.8079062,-10545.1434290,0.0385219914268,0,0,58
29490.6179088,-10545.1434290,0.0452796440644,0,0,58
29479.4279113,-10545.1434290,0.0520300304088,0,0,58
29468.2379138,-10545.1434290,0.0587804167532,0,0,58
29457.0479164,-10545.1434290,0.0612291575476,0,0,58
29445.8579189,-10545.1434290,0.0646079838664,0,0,58
29434.6679215,-10545.1434290,0.067979543892,0,0,58
29423.4779240,-10545.1434290,0.111620900603,0,0,58
29412.2879265,-10545.1434290,0.233752756014,0,0,58
29401.0979291,-10545.1434290,0.394730214651,0,0,58
29389.9079316,-10545.1434290,0.555714939581,0,0,58
29378.7179341,-10545.1434290,0.716692398218,0,0,58
29367.5279367,-10545.1434290,0.877677123148,0,0,58
29356.3379392,-10545.1434290,1.03865458178,0,0,58
29345.1479418,-10545.1434290,1.19963930671,0,0,58
29333.9579443,-10545.1434290,1.40276853197,0,0,58
29322.7679468,-10545.1434290,2.06951632591,0,0,58
29311.5779494,-10545.1434290,2.73626411986,0,0,58
29300.3879519,-10545.1434290,3.40301191380,0,0,58
29289.1979544,-10545.1434290,4.06975970775,0,0,58
29278.0079570,-10545.1434290,4.73650750169,0,0,58
29266.8179595,-10545.1434290,5.40228161235,0,0,58
29255.6279621,-10545.1434290,6.05135778134,0,0,58
29244.4379646,-10545.1434290,6.70119691110,0,0,58
29233.2479671,-10545.1434290,7.35046927000,0,0,58
29222.0579697,-10545.1434290,8.00062811667,0,0,58
29210.8679722,-10545.1434290,8.65048177902,0,0,58
29199.6779747,-10545.1434290,9.30037903913,0,0,58
29188.4879773,-10545.1434290,9.95034896217,0,0,58
29177.2979798,-10545.1434290,10.6003261515,55,55,55
29166.1079824,-10545.1434290,11.3654740874,55,55,55
29154.9179849,-10545.1434290,12.2128110652,55,55,55
29143.7279874,-10545.1434290,13.0601553093,55,55,55
29132.5379900,-10545.1434290,13.9074922872,55,55,55
29121.3479925,-10545.1434290,14.7548292650,55,55,55
29110.1579950,-10545.1434290,15.6021735091,55,55,55
29098.9679976,-10545.1434290,16.4495104869,55,55,55
29087.7780001,-10545.1434290,17.2968474647,55,55,55
29076.5880026,-10545.1434290,18.1441917088,55,55,55
29065.3980052,-10545.1434290,19.1535234263,55,55,55
29054.2080077,-10545.1434290,20.2872177512,55,55,55
29043.0180103,-10545.1434290,21.3818557504,55,55,55
29031.8280128,-10545.1434290,22.4764937496,55,55,55
29020.6380153,-10545.1434290,23.5711390151,55,55,55
29009.4480179,-10545.1434290,24.6657842805,55,55,55
28998.2580204,-10545.1434290,25.7604222797,55,55,55
28987.0680229,-10545.1434290,26.8550602789,55,55,55
28975.8780255,-10545.1434290,28.0333987090,55,55,55
28964.6880280,-10545.1434290,29.4659338726,55,55,55
28953.4980306,-10545.1434290,30.5321170678,55,55,55
28942.3080331,-10545.1434290,31.5983002629,55,55,55
28931.1180356,-10545.1434290,32.6644834581,55,55,55
28919.9280382,-10545.1434290,33.7306666533,55,55,55
28908.7380407,-10545.1434290,34.7968571148,55,55,55
28897.5480432,-10545.1434290,35.8630403099,55,55,55
28886.3580458,-10545.1434290,36.9188981025,55,55,55
28875.1680483,-10545.1434290,38.4696921873,55,55,55
28863.9780509,-10545.1434290,39.1415772505,55,55,55
28852.7880534,-10545.1434290,39.8134550474,55,55,55
28841.5980559,-10545.1434290,40.4853401106,55,55,55
28830.4080585,-10545.1434290,41.1572179076,55,55,55
28819.2180610,-10545.1434290,41.8291029708,55,55,55
28808.0280635,-10545.1434290,42.6274215349,55,55,55
28796.8380661,-10545.1434290,42.9621433293,55,55,55
28785.6480686,-10545.1434290,43.1323199151,55,55,55
28774.4580712,-10545.1434290,43.3024965008,55,55,55
28763.2680737,-10545.1434290,43.4726730866,55,55,55
28752.0780762,-10545.1434290,43.6428496724,55,55,55
28740.8880788,-10545.1434290,43.8461169572,55,55,55
28729.6980813,-10545.1434290,43.8904994758,55,55,55
28718.5080838,-10545.1434290,43.8942052853,55,55,55
28707.3180864,-10545.1434290,43.8777107999,55,55,55
28696.1280889,-10545.1434290,43.8612163144,55,55,55
28684.9380915,-10545.1434290,43.6106091297,55,55,55
28673.7480940,-10545.1434290,43.0605943353,55,55,55
28662.5580965,-10545.1434290,42.5105722747,55,55,55
28651.3680991,-10545.1434290,41.9605574803,55,55,55
28640.1781016,-10545.1434290,41.3854812408,55,55,55
28628.9881041,-10545.1434290,40.8010823473,55,55,55
28617.7981067,-10545.1434290,40.2166907200,55,55,55
28606.6081092,-10545.1434290,39.6322990927,55,55,55
28595.4181117,-10545.1434290,39.0563000340,55,55,55
28584.2281143,-10545.1434290,38.5256499109,55,55,55
28573.0381168,-10545.1434290,37.8934606072,55,55,55
28561.8481194,-10545.1434290,37.0254946232,55,55,55
28550.6581219,-10545.1434290,36.1617067576,55,55,55
28539.4681244,-10545.1434290,35.5856641012,55,55,55
28528.2781270,-10545.1434290,35.0096141784,55,55,55
28517.0881295,-10545.1434290,34.4335642557,55,55,55
28505.8981320,-10545.1434290,33.8107848017,55,55,55
28494.7081346,-10545.1434290,33.5192901853,55,55,55
28483.5181371,-10545.1434290,33.2910777161,55,55,55
28472.3281397,-10545.1434290,33.0628652468,55,55,55
28461.1381422,-10545.1434290,32.8346527776,55,55,55
28449.9481447,-10545.1434290,32.6064330421,55,55,55
28438.7581473,-10545.1434290,32.3782205728,55,55,55
28427.5681498,-10545.1434290,32.1500081036,55,55,55
28416.3781523,-10545.1434290,31.9022638384,55,55,55
28405.1881549,-10545.1434290,31.4940725539,55,55,55
28393.9981574,-10545.1434290,30.9911651381,55,55,55
28382.8081600,-10545.1434290,30.4882577223,55,55,55
28371.6181625,-10545.1434290,29.9853503065,55,55,55
28360.4281650,-10545.1434290,29.4824428907,55,55,55
28349.2381676,-10545.1434290,28.9795354749,55,55,55
28338.0481701,-10545.1434290,28.4766280591,55,55,55
28326.8581726,-10545.1434290,27.9795118789,55,55,55
28315.6681752,-10545.1434290,27.3283720827,55,55,55
28304.4781777,-10545.1434290,26.6184552411,55,55,55
28293.2881803,-10545.1434290,25.9574478187,55,55,55
28282.0981828,-10545.1434290,25.2964403964,55,55,55
28270.9081853,-10545.1434290,24.6154797330,55,55,55
28259.7181879,-10545.1434290,23.8347601309,55,55,55
28248.5281904,-10545.1434290,22.7569871981,55,55,55
28237.3381929,-10545.1434290,21.3592939102,55,55,55
28226.1481955,-10545.1434290,20.0765751789,55,55,55
28214.9581980,-10545.1434290,19.0791529158,55,55,55
28203.7682006,-10545.1434290,18.0817306528,55,55,55
27957.5882564,-10545.1434290,11.7156730862,0,0,58
27946.3982589,-10545.1434290,10.8528589039,0,0,58
27935.2082614,-10545.1434290,9.95678689791,0,0,58
27924.0182640,-10545.1434290,9.06070762558,0,0,58
27912.8282665,-10545.1434290,8.16463561955,0,0,58
27901.6382691,-10545.1434290,7.15153996220,0,0,58
27890.4482716,-10545.1434290,6.06474955963,0,0,58
27879.2582741,-10545.1434290,4.97795915706,0,0,58
27868.0682767,-10545.1434290,3.89116875449,0,0,58
27856.8782792,-10545.1434290,2.89458938149,0,0,58
27845.6882817,-10545.1434290,2.46749120221,0,0,58
27834.4982843,-10545.1434290,1.88515593589,0,0,58
27823.3082868,-10545.1434290,1.30282066957,0,0,58
27812.1182894,-10545.1434290,0.905274504564,0,0,58
27800.9282919,-10545.1434290,0.698889979979,0,0,58
27789.7382944,-10545.1434290,0.501769979171,0,0,58
27778.5482970,-10545.1434290,0.304657244656,0,0,58
29568.9478910,-10533.9534316,-0.00198032663955,0,0,58
29557.7578935,-10533.9534316,0.00477005970484,0,0,58
29546.5678961,-10533.9534316,0.0115204460492,0,0,58
29535.3778986,-10533.9534316,0.0182708323936,0,0,58
29524.1879012,-10533.9534316,0.025021218738,0,0,58
29512.9979037,-10533.9534316,0.0317716050824,0,0,58
29501.8079062,-10533.9534316,0.0385219914268,0,0,58
29490.6179088,-10533.9534316,0.0452796440644,0,0,58
29479.4279113,-10533.9534316,0.0520300304088,0,0,58
29468.2379138,-10533.9534316,0.0587804167532,0,0,58
29457.0479164,-10533.9534316,0.0655308030975,0,0,58
29445.8579189,-10533.9534316,0.0722811894419,0,0,58
29434.6679215,-10533.9534316,0.0790315757863,0,0,58
29423.4779240,-10533.9534316,0.136493422085,0,0,58
29412.2879265,-10533.9534316,0.297470880722,0,0,58
29401.0979291,-10533.9534316,0.458455605652,0,0,58
29389.9079316,-10533.9534316,0.619433064289,0,0,58
29378.7179341,-10533.9534316,0.780417789219,0,0,58
29367.5279367,-10533.9534316,0.941395247856,0,0,58
29356.3379392,-10533.9534316,1.10237997279,0,0,58
29345.1479418,-10533.9534316,1.26335743142,0,0,58
29333.9579443,-10533.9534316,1.46648665667,0,0,58
29322.7679468,-10533.9534316,2.12325056382,0,0,58
29311.5779494,-10533.9534316,2.77335128014,0,0,58
29300.3879519,-10533.9534316,3.42351739310,0,0,58
29289.1979544,-10533.9534316,4.07371983752,0,0,58
29278.0079570,-10533.9534316,4.72391501565,0,0,58
29266.8179595,-10533.9534316,5.37411019378,0,0,58
29255.6279621,-10533.9534316,6.02431990449,0,0,58
29244.4379646,-10533.9534316,6.67452234892,0,0,58
29233.2479671,-10533.9534316,7.32473205963,0,0,58
29222.0579697,-10533.9534316,7.97493450406,0,0,58
29210.8679722,-10533.9534316,8.62514421477,0,0,58
29199.6779747,-10533.9534316,9.27534665920,0,0,58
29188.4879773,-10533.9534316,9.92555636991,0,0,58
29177.2979798,-10533.9534316,10.5686741785,55,55,55
29166.1079824,-10533.9534316,11.3808277648,55,55,55
29154.9179849,-10533.9534316,12.2281720090,55,55,55
29143.7279874,-10533.9534316,13.0755089868,55,55,55
29132.5379900,-10533.9534316,13.9228459646,55,55,55
29121.3479925,-10533.9534316,14.7701902087,55,55,55
29110.1579950,-10533.9534316,15.6175271865,55,55,55
29098.9679976,-10533.9534316,16.4648641643,55,55,55
29087.7780001,-10533.9534316,17.2752520414,55,55,55
29076.5880026,-10533.9534316,18.4209866141,55,55,55
29065.3980052,-10533.9534316,19.5667139205,55,55,55
29054.2080077,-10533.9534316,20.7004082454,55,55,55
29043.0180103,-10533.9534316,21.7950462446,55,55,55
29031.8280128,-10533.9534316,22.8896842438,55,55,55
29020.6380153,-10533.9534316,23.9843295092,55,55,55
29009.4480179,-10533.9534316,25.0789747747,55,55,55
28998.2580204,-10533.9534316,26.1736127739,55,55,55
28987.0680229,-10533.9534316,27.4590926966,55,55,55
28975.8780255,-10533.9534316,28.8752205703,55,55,55
28964.6880280,-10533.9534316,30.3077557339,55,55,55
28953.4980306,-10533.9534316,31.3739389291,55,55,55
28942.3080331,-10533.9534316,32.4401221243,55,55,55
28931.1180356,-10533.9534316,33.5063053194,55,55,55
28919.9280382,-10533.9534316,34.5724885146,55,55,55
28908.7380407,-10533.9534316,35.6386717098,55,55,55
28897.5480432,-10533.9534316,36.8494396062,55,55,55
28886.3580458,-10533.9534316,38.3804403084,55,55,55
28875.1680483,-10533.9534316,39.9312343932,55,55,55
28863.9780509,-10533.9534316,40.6031121902,55,55,55
28852.7880534,-10533.9534316,41.2749972534,55,55,55
28841.5980559,-10533.9534316,41.9468750503,55,55,55
28830.4080585,-10533.9534316,42.6187601135,55,55,55
28819.2180610,-10533.9534316,43.4170714114,55,55,55
28808.0280635,-10533.9534316,44.3770940635,55,55,55
28796.8380661,-10533.9534316,44.7118231241,55,55,55
28785.6480686,-10533.9534316,44.8819924436,55,55,55
28774.4580712,-10533.9534316,45.0521690294,55,55,55
28763.2680737,-10533.9534316,45.2223456152,55,55,55
28752.0780762,-10533.9534316,45.4256129000,55,55,55
28740.8880788,-10533.9534316,45.7418492446,55,55,55
28729.6980813,-10533.9534316,45.7862317632,55,55,55
28718.5080838,-10533.9534316,45.6989999138,55,55,55
28707.3180864,-10533.9534316,45.6825054283,55,55,55
28696.1280889,-10533.9534316,45.6660109429,55,55,55
28684.9380915,-10533.9534316,45.4154037581,55,55,55
28673.7480940,-10533.9534316,44.8653816975,55,55,55
28662.5580965,-10533.9534316,44.3153669031,55,55,55
28651.3680991,-10533.9534316,43.7517496080,55,55,55
28640.1781016,-10533.9534316,43.1673579807,55,55,55
28628.9881041,-10533.9534316,42.5829590871,55,55,55
28617.7981067,-10533.9534316,41.9985674598,55,55,55
28606.6081092,-10533.9534316,41.4141758325,55,55,55
28595.4181117,-10533.9534316,40.8381767738,55,55,55
28584.2281143,-10533.9534316,40.3075266508,55,55,55
28573.0381168,-10533.9534316,39.5628841942,55,55,55
28561.8481194,-10533.9534316,38.6949182101,55,55,55
28550.6581219,-10533.9534316,37.8311376108,55,55,55
28539.4681244,-10533.9534316,37.2550876881,55,55,55
28528.2781270,-10533.9534316,36.6790377653,55,55,55
28517.0881295,-10533.9534316,36.1073476185,55,55,55
28505.8981320,-10533.9534316,35.3781024371,55,55,55
28494.7081346,-10533.9534316,35.0866078207,55,55,55
28483.5181371,-10533.9534316,34.8583953515,55,55,55
28472.3281397,-10533.9534316,34.6301756160,55,55,55
28461.1381422,-10533.9534316,34.4019631468,55,55,55
28449.9481447,-10533.9534316,34.1737506775,55,55,55
28438.7581473,-10533.9534316,33.9546937377,55,55,55
28427.5681498,-10533.9534316,33.6834575466,55,55,55
28416.3781523,-10533.9534316,33.4122213556,55,55,55
28405.1881549,-10533.9534316,33.0040300711,55,55,55
28393.9981574,-10533.9534316,32.5011226553,55,55,55
28382.8081600,-10533.9534316,31.9982152395,55,55,55
28371.6181625,-10533.9534316,31.4953078237,55,55,55
28360.4281650,-10533.9534316,30.9924004079,55,55,55
28349.2381676,-10533.9534316,30.4894929921,55,55,55
28338.0481701,-10533.9534316,30.0036395664,55,55,55
28326.8581726,-10533.9534316,29.5345349463,55,55,55
28315.6681752,-10533.9534316,28.8833878838,55,55,55
28304.4781777,-10533.9534316,27.8243910526,55,55,55
28293.2881803,-10533.9534316,27.2471131263,55,55,55
28282.0981828,-10533.9534316,26.5861057039,55,55,55
28270.9081853,-10533.9534316,25.9051450406,55,55,55
28259.7181879,-10533.9534316,25.1244327047,55,55,55
28248.5281904,-10533.9534316,23.8410382081,55,55,55
28237.3381929,-10533.9534316,22.4433449202,55,55,55
28226.1481955,-10533.9534316,21.1606189226,55,55,55
28214.9581980,-10533.9534316,20.1631966596,55,55,55
28203.7682006,-10533.9534316,19.1657816629,55,55,55
27946.3982589,-10533.9534316,11.4381224864,0,0,58
27935.2082614,-10533.9534316,10.3942904090,0,0,58
27924.0182640,-10533.9534316,9.37498933728,0,0,58
27912.8282665,-10533.9534316,8.35569553186,0,0,58
27901.6382691,-10533.9534316,7.35737951480,0,0,58
27890.4482716,-10533.9534316,6.27058911223,0,0,58
27879.2582741,-10533.9534316,5.18379870966,0,0,58
27868.0682767,-10533.9534316,4.09700104080,0,0,58
27856.8782792,-10533.9534316,3.01021063823,0,0,58
27845.6882817,-10533.9534316,2.55418534589,0,0,58
27834.4982843,-10533.9534316,1.97185007956,0,0,58
27823.3082868,-10533.9534316,1.38951481324,0,0,58
27812.1182894,-10533.9534316,0.99196864824,0,0,58
27800.9282919,-10533.9534316,0.756162902655,0,0,58
27789.7382944,-10533.9534316,0.559050168141,0,0,58
27778.5482970,-10533.9534316,0.361937433626,0,0,58
29568.9478910,-10522.7634341,-0.00198032663955,0,0,58
29557.7578935,-10522.7634341,0.00477005970484,0,0,58
29546.5678961,-10522.7634341,0.0115204460492,0,0,58
29535.3778986,-10522.7634341,0.0182708323936,0,0,58
29524.1879012,-10522.7634341,0.025021218738,0,0,58
29512.9979037,-10522.7634341,0.0317716050824,0,0,58
29501.8079062,-10522.7634341,0.0385219914268,0,0,58
29490.6179088,-10522.7634341,0.0452796440644,0,0,58
29479.4279113,-10522.7634341,0.0520300304088,0,0,58
29468.2379138,-10522.7634341,0.0587804167532,0,0,58
29457.0479164,-10522.7634341,0.0618903902251,0,0,58
29445.8579189,-10522.7634341,0.0787699892326,0,0,58
29434.6679215,-10522.7634341,0.0956495882402,0,0,58
29423.4779240,-10522.7634341,0.169685849234,0,0,58
29412.2879265,-10522.7634341,0.330663307871,0,0,58
29401.0979291,-10522.7634341,0.491648032801,0,0,58
29389.9079316,-10522.7634341,0.652625491438,0,0,58
29378.7179341,-10522.7634341,0.813610216368,0,0,58
29367.5279367,-10522.7634341,0.974587675005,0,0,58
29356.3379392,-10522.7634341,1.13557239993,0,0,58
29345.1479418,-10522.7634341,1.29601941917,0,0,58
29333.9579443,-10522.7634341,1.56485773346,0,0,58
29322.7679468,-10522.7634341,2.13475310589,0,0,58
29311.5779494,-10522.7634341,2.72327925398,0,0,58
29300.3879519,-10522.7634341,3.38732398687,0,0,58
29289.1979544,-10522.7634341,4.04330313436,0,0,58
29278.0079570,-10522.7634341,4.69657195449,0,0,58
29266.8179595,-10522.7634341,5.34835845082,0,0,58
29255.6279621,-10522.7634341,5.99960724146,0,0,58
29244.4379646,-10522.7634341,6.65052178261,0,0,58
29233.2479671,-10522.7634341,7.30124013385,0,0,58
29222.0579697,-10522.7634341,7.95174049629,0,0,58
29210.8679722,-10522.7634341,8.60224085874,0,0,58
29199.6779747,-10522.7634341,9.25258136273,0,0,58
29188.4879773,-10522.7634341,9.90292913302,0,0,58
29177.2979798,-10522.7634341,10.5981389973,55,55,55
29166.1079824,-10522.7634341,11.4073497349,55,55,55
29154.9179849,-10522.7634341,12.2435256864,55,55,55
29143.7279874,-10522.7634341,13.0908626642,55,55,55
29132.5379900,-10522.7634341,13.9381996420,55,55,55
29121.3479925,-10522.7634341,14.7855438862,55,55,55
29110.1579950,-10522.7634341,15.6328808640,55,55,55
29098.9679976,-10522.7634341,16.5427152292,55,55,55
29087.7780001,-10522.7634341,17.6884425356,55,55,55
29076.5880026,-10522.7634341,18.8341771083,55,55,55
29065.3980052,-10522.7634341,19.9799044147,55,55,55
29054.2080077,-10522.7634341,21.1135987396,55,55,55
29043.0180103,-10522.7634341,22.2082367388,55,55,55
29031.8280128,-10522.7634341,23.3028747379,55,55,55
29020.6380153,-10522.7634341,24.3975200034,55,55,55
29009.4480179,-10522.7634341,25.4686515442,55,55,55
28998.2580204,-10522.7634341,26.8847866842,55,55,55
28987.0680229,-10522.7634341,28.3009145579,55,55,55
28975.8780255,-10522.7634341,29.7170424316,55,55,55
28964.6880280,-10522.7634341,31.1495775952,55,55,55
28953.4980306,-10522.7634341,32.2157607904,55,55,55
28942.3080331,-10522.7634341,33.2819439856,55,55,55
28931.1180356,-10522.7634341,34.3481271807,55,55,55
28919.9280382,-10522.7634341,35.4143103759,55,55,55
28908.7380407,-10522.7634341,36.7799811099,55,55,55
28897.5480432,-10522.7634341,38.3109818121,55,55,55
28886.3580458,-10522.7634341,39.8419752481,55,55,55
28875.1680483,-10522.7634341,41.3927693329,55,55,55
28863.9780509,-10522.7634341,42.0646471298,55,55,55
28852.7880534,-10522.7634341,42.7365321930,55,55,55
28841.5980559,-10522.7634341,43.4084099899,55,55,55
28830.4080585,-10522.7634341,44.2067285541,55,55,55
28819.2180610,-10522.7634341,45.1667512062,55,55,55
28808.0280635,-10522.7634341,46.1267665920,55,55,55
28796.8380661,-10522.7634341,46.4614956527,55,55,55
28785.6480686,-10522.7634341,46.6316722385,55,55,55
28774.4580712,-10522.7634341,46.8018488242,55,55,55
28763.2680737,-10522.7634341,47.0051161091,55,55,55
28752.0780762,-10522.7634341,47.3213451873,55,55,55
28740.8880788,-10522.7634341,47.6375815319,55,55,55
28729.6980813,-10522.7634341,47.6819640505,55,55,55
28718.5080838,-10522.7634341,47.5290303784,55,55,55
28707.3180864,-10522.7634341,47.4873000568,55,55,55
28696.1280889,-10522.7634341,47.4708055713,55,55,55
28684.9380915,-10522.7634341,47.2201983866,55,55,55
28673.7480940,-10522.7634341,46.6701763259,55,55,55
28662.5580965,-10522.7634341,46.1180179751,55,55,55
28651.3680991,-10522.7634341,45.5336263478,55,55,55
28640.1781016,-10522.7634341,44.9492347205,55,55,55
28628.9881041,-10522.7634341,44.3648358269,55,55,55
28617.7981067,-10522.7634341,43.7804441997,55,55,55
28606.6081092,-10522.7634341,43.1960525724,55,55,55
28595.4181117,-10522.7634341,42.6200535137,55,55,55
28584.2281143,-10522.7634341,42.1002810315,55,55,55
28573.0381168,-10522.7634341,41.2323150474,55,55,55
28561.8481194,-10522.7634341,40.3643490633,55,55,55
28550.6581219,-10522.7634341,39.5005611977,55,55,55
28539.4681244,-10522.7634341,38.9245112750,55,55,55
28528.2781270,-10522.7634341,38.3484686185,55,55,55
28517.0881295,-10522.7634341,37.6746652539,55,55,55
28505.8981320,-10522.7634341,36.9454200725,55,55,55
28494.7081346,-10522.7634341,36.6539254562,55,55,55
28483.5181371,-10522.7634341,36.4257057207,55,55,55
28472.3281397,-10522.7634341,36.1974932514,55,55,55
28461.1381422,-10522.7634341,35.9692807822,55,55,55
28449.9481447,-10522.7634341,35.7358801796,55,55,55
28438.7581473,-10522.7634341,35.4646512549,55,55,55
28427.5681498,-10522.7634341,35.1934150639,55,55,55
28416.3781523,-10522.7634341,34.9221788729,55,55,55
28405.1881549,-10522.7634341,34.5139875884,55,55,55
28393.9981574,-10522.7634341,34.0110801726,55,55,55
28382.8081600,-10522.7634341,33.5081727568,55,55,55
28371.6181625,-10522.7634341,33.0052653410,55,55,55
28360.4281650,-10522.7634341,32.4968791401,55,55,55
28349.2381676,-10522.7634341,32.0277672538,55,55,55
28338.0481701,-10522.7634341,31.5586626338,55,55,55
28326.8581726,-10522.7634341,31.0895580137,55,55,55
28315.6681752,-10522.7634341,30.4384109512,55,55,55
28304.4781777,-10522.7634341,29.3794141200,55,55,55
28293.2881803,-10522.7634341,28.5367857001,55,55,55
28282.0981828,-10522.7634341,27.8757710115,55,55,55
28270.9081853,-10522.7634341,27.1948176144,55,55,55
28259.7181879,-10522.7634341,26.3227897724,55,55,55
28248.5281904,-10522.7634341,24.9250964845,55,55,55
28237.3381929,-10522.7634341,23.5273959302,55,55,55
28226.1481955,-10522.7634341,22.2446699327,55,55,55
28214.9581980,-10522.7634341,21.2472476696,55,55,55
28203.7682006,-10522.7634341,20.1310287798,55,55,55
27901.6382691,-10522.7634341,7.61130739552,0,0,58
27890.4482716,-10522.7634341,6.52450972666,0,0,58
27879.2582741,-10522.7634341,5.43267651664,0,0,58
27868.0682767,-10522.7634341,4.33072862654,0,0,58
27856.8782792,-10522.7634341,3.30640654626,0,0,58
27845.6882817,-10522.7634341,2.82444058734,0,0,58
27834.4982843,-10522.7634341,2.24210532101,0,0,58
27823.3082868,-10522.7634341,1.65977732099,0,0,58
27812.1182894,-10522.7634341,1.16054664952,0,0,58
27800.9282919,-10522.7634341,0.963433915006,0,0,58
27789.7382944,-10522.7634341,0.766313914198,0,0,58
27778.5482970,-10522.7634341,0.569201179683,0,0,58
29568.9478910,-10511.5734367,-0.00198032663955,0,0,58
29557.7578935,-10511.5734367,0.00477005970484,0,0,58
29546.5678961,-10511.5734367,0.0115204460492,0,0,58
29535.3778986,-10511.5734367,0.0182708323936,0,0,58
29524.1879012,-10511.5734367,0.025021218738,0,0,58
29512.9979037,-10511.5734367,0.0317716050824,0,0,58
29501.8079062,-10511.5734367,0.0385219914268,0,0,58
29490.6179088,-10511.5734367,0.0414285086903,0,0,58
29479.4279113,-10511.5734367,0.0583081076978,0,0,58
29468.2379138,-10511.5734367,0.0751877067054,0,0,58
29457.0479164,-10511.5734367,0.092067305713,0,0,58
29445.8579189,-10511.5734367,0.108946904721,0,0,58
29434.6679215,-10511.5734367,0.125826503728,0,0,58
29423.4779240,-10511.5734367,0.199862764722,0,0,58
29412.2879265,-10511.5734367,0.360847489652,0,0,58
29401.0979291,-10511.5734367,0.521824948289,0,0,58
29389.9079316,-10511.5734367,0.682809673219,0,0,58
29378.7179341,-10511.5734367,0.843787131856,0,0,58
29367.5279367,-10511.5734367,1.00477185679,0,0,58
29356.3379392,-10511.5734367,1.16520434344,0,0,58
29345.1479418,-10511.5734367,1.40667779768,0,0,58
29333.9579443,-10511.5734367,1.67551611197,0,0,58
29322.7679468,-10511.5734367,2.24541148440,0,0,58
29311.5779494,-10511.5734367,2.81530685684,0,0,58
29300.3879519,-10511.5734367,3.38520222927,0,0,58
29289.1979544,-10511.5734367,3.96527041213,0,0,58
29278.0079570,-10511.5734367,4.63280296573,0,0,58
29266.8179595,-10511.5734367,5.29547436922,0,0,58
29255.6279621,-10511.5734367,5.95462162052,0,0,58
29244.4379646,-10511.5734367,6.61088415343,0,0,58
29233.2479671,-10511.5734367,7.26518478720,0,0,58
29222.0579697,-10511.5734367,7.91825015113,0,0,58
29210.8679722,-10511.5734367,8.57068334755,0,0,58
29199.6779747,-10511.5734367,9.22251344164,0,0,58
29188.4879773,-10511.5734367,9.87411101435,55,55,55
29177.2979798,-10511.5734367,10.6252204719,55,55,55
29166.1079824,-10511.5734367,11.4363931086,55,55,55
29154.9179849,-10511.5734367,12.2588793638,55,55,55
29143.7279874,-10511.5734367,13.1062163417,55,55,55
29132.5379900,-10511.5734367,13.9535605858,55,55,55
29121.3479925,-10511.5734367,14.8008975636,55,55,55
29110.1579950,-10511.5734367,15.8101711507,55,55,55
29098.9679976,-10511.5734367,16.9559057234,55,55,55
29087.7780001,-10511.5734367,18.1016330298,55,55,55
29076.5880026,-10511.5734367,19.2473676025,55,55,55
29065.3980052,-10511.5734367,20.3930949088,55,55,55
29054.2080077,-10511.5734367,21.5267892338,55,55,55
29043.0180103,-10511.5734367,22.6214272329,55,55,55
29031.8280128,-10511.5734367,23.7160652321,55,55,55
29020.6380153,-10511.5734367,24.8943455318,55,55,55
29009.4480179,-10511.5734367,26.3104734055,55,55,55
28998.2580204,-10511.5734367,27.7266012792,55,55,55
28987.0680229,-10511.5734367,29.1427364192,55,55,55
28975.8780255,-10511.5734367,30.5588642929,55,55,55
28964.6880280,-10511.5734367,31.9913994565,55,55,55
28953.4980306,-10511.5734367,33.0575826517,55,55,55
28942.3080331,-10511.5734367,34.1237658469,55,55,55
28931.1180356,-10511.5734367,35.1795291777,55,55,55
28919.9280382,-10511.5734367,36.7105226136,55,55,55
28908.7380407,-10511.5734367,38.2415233158,55,55,55
28897.5480432,-10511.5734367,39.7725167518,55,55,55
28886.3580458,-10511.5734367,41.3035101877,55,55,55
28875.1680483,-10511.5734367,42.8543042725,55,55,55
28863.9780509,-10511.5734367,43.5261893357,55,55,55
28852.7880534,-10511.5734367,44.1980671327,55,55,55
28841.5980559,-10511.5734367,44.9963856968,55,55,55
28830.4080585,-10511.5734367,45.9564083489,55,55,55
28819.2180610,-10511.5734367,46.9164237348,55,55,55
28808.0280635,-10511.5734367,47.8764463869,55,55,55
28796.8380661,-10511.5734367,48.2111681812,55,55,55
28785.6480686,-10511.5734367,48.3813447670,55,55,55
28774.4580712,-10511.5734367,48.5846120518,55,55,55
28763.2680737,-10511.5734367,48.9008483964,55,55,55
28752.0780762,-10511.5734367,49.2170847410,55,55,55
28740.8880788,-10511.5734367,49.5333138192,55,55,55
28729.6980813,-10511.5734367,49.5776963378,55,55,55
28718.5080838,-10511.5734367,49.4247626657,55,55,55
28707.3180864,-10511.5734367,49.2718289936,55,55,55
28696.1280889,-10511.5734367,49.2755929335,55,55,55
28684.9380915,-10511.5734367,49.0249857487,55,55,55
28673.7480940,-10511.5734367,48.4749709544,55,55,55
28662.5580965,-10511.5734367,47.8998947149,55,55,55
28651.3680991,-10511.5734367,47.3155030876,55,55,55
28640.1781016,-10511.5734367,46.7311114603,55,55,55
28628.9881041,-10511.5734367,46.1467125668,55,55,55
28617.7981067,-10511.5734367,45.5623209395,55,55,55
28606.6081092,-10511.5734367,44.9779293122,55,55,55
28595.4181117,-10511.5734367,44.4019302535,55,55,55
28584.2281143,-10511.5734367,43.7697046184,55,55,55
28573.0381168,-10511.5734367,42.9017386343,55,55,55
28561.8481194,-10511.5734367,42.0337726502,55,55,55
28550.6581219,-10511.5734367,41.1699920509,55,55,55
28539.4681244,-10511.5734367,40.5939421282,55,55,55
28528.2781270,-10511.5734367,39.9712280708,55,55,55
28517.0881295,-10511.5734367,39.2419828894,55,55,55
28505.8981320,-10511.5734367,38.5127304417,55,55,55
28494.7081346,-10511.5734367,38.2212358253,55,55,55
28483.5181371,-10511.5734367,37.9930233561,55,55,55
28472.3281397,-10511.5734367,37.7648108869,55,55,55
28461.1381422,-10511.5734367,37.5170738879,55,55,55
28449.9481447,-10511.5734367,37.2458376969,55,55,55
28438.7581473,-10511.5734367,36.9746015059,55,55,55
28427.5681498,-10511.5734367,36.7033653148,55,55,55
28416.3781523,-10511.5734367,36.4321291238,55,55,55
28405.1881549,-10511.5734367,36.0239451056,55,55,55
28393.9981574,-10511.5734367,35.5210376898,55,55,55
28382.8081600,-10511.5734367,35.0181302740,55,55,55
28371.6181625,-10511.5734367,34.5210068276,55,55,55
28360.4281650,-10511.5734367,34.0519022075,55,55,55
28349.2381676,-10511.5734367,33.5827903212,55,55,55
28338.0481701,-10511.5734367,33.1136857012,55,55,55
28326.8581726,-10511.5734367,32.6445738149,55,55,55
28315.6681752,-10511.5734367,31.9934340186,55,55,55
28304.4781777,-10511.5734367,30.9344371874,55,55,55
28293.2881803,-10511.5734367,29.8754330899,55,55,55
28282.0981828,-10511.5734367,29.1654363190,55,55,55
28270.9081853,-10511.5734367,28.4844829220,55,55,55
28259.7181879,-10511.5734367,27.4068335162,55,55,55
28248.5281904,-10511.5734367,26.0091402282,55,55,55
28237.3381929,-10511.5734367,24.6114469403,55,55,55
28226.1481955,-10511.5734367,23.3287209427,55,55,55
28214.9581980,-10511.5734367,22.3312986797,55,55,55
28203.7682006,-10511.5734367,21.1542609161,55,55,55
28192.5782031,-10511.5734367,19.7997366758,55,55,55
28181.3882056,-10511.5734367,18.4762540399,55,55,55
28170.1982082,-10511.5734367,17.1527714040,55,55,55
28159.0082107,-10511.5734367,15.8292887680,55,55,55
28147.8182132,-10511.5734367,14.5058061321,55,55,55
28136.6282158,-10511.5734367,13.7643753771,55,55,55
28125.4382183,-10511.5734367,13.3755923616,55,55,55
28114.2482209,-10511.5734367,13.2787108750,55,55,55
28103.0582234,-10511.5734367,13.2037154633,55,55,55
28091.8682259,-10511.5734367,13.0595013429,55,55,55
28080.6782285,-10511.5734367,12.9152872226,55,55,55
28069.4882310,-10511.5734367,12.7710803686,55,55,55
28058.2982335,-10511.5734367,12.7811369183,55,55,55
27901.6382691,-10511.5734367,7.86017066991,0,0,58
27890.4482716,-10511.5734367,6.76822846549,0,0,58
27879.2582741,-10511.5734367,5.65674719877,0,0,58
27868.0682767,-10511.5734367,4.61510227560,0,0,58
27856.8782792,-10511.5734367,3.59478392284,0,0,58
27845.6882817,-10511.5734367,3.11282523022,0,0,58
27834.4982843,-10511.5734367,2.53048996390,0,0,58
27823.3082868,-10511.5734367,1.94815469757,0,0,58
27812.1182894,-10511.5734367,1.39704269296,0,0,58
27800.9282919,-10511.5734367,1.19992995844,0,0,58
27789.7382944,-10511.5734367,1.00280995763,0,0,58
27778.5482970,-10511.5734367,0.719584382895,0,0,58
29568.9478910,-10500.3834392,-0.00198032663955,0,0,58
29557.7578935,-10500.3834392,0.00477005970484,0,0,58
29546.5678961,-10500.3834392,0.0115204460492,0,0,58
29535.3778986,-10500.3834392,0.0182708323936,0,0,58
29524.1879012,-10500.3834392,0.0209738934486,0,0,58
29512.9979037,-10500.3834392,0.0378534924562,0,0,58
29501.8079062,-10500.3834392,0.0547330914638,0,0,58
29490.6179088,-10500.3834392,0.0716126904713,0,0,58
29479.4279113,-10500.3834392,0.0884922894789,0,0,58
29468.2379138,-10500.3834392,0.105371888486,0,0,58
29457.0479164,-10500.3834392,0.122244221201,0,0,58
29445.8579189,-10500.3834392,0.139123820208,0,0,58
29434.6679215,-10500.3834392,0.156003419216,0,0,58
29423.4779240,-10500.3834392,0.230046946503,0,0,58
29412.2879265,-10500.3834392,0.39102440514,0,0,58
29401.0979291,-10500.3834392,0.55200913007,0,0,58
29389.9079316,-10500.3834392,0.712986588707,0,0,58
